# .PCD v0.7 - Point Cloud Data file format
VERSION 0.7
FIELDS x y z
SIZE 4 4 4
TYPE F F F
COUNT 1 1 1
WIDTH 502
HEIGHT 1
VIEWPOINT 0 0 0 1 0 0 0
POINTS 502
DATA ascii
-0.78623968 -0.79090941 0.042412061
-0.7385003 -0.73226142 -0.021568721
-0.53984594 -0.93546933 -0.0025363136
-0.76201981 -0.84412616 0.21805257
-0.92020518 -0.66385162 0.21543346
-0.86930203 -0.72011983 0.56606358
-0.60427171 -0.96369046 0.22224192
-0.77745759 -0.83063585 1.4443433
-0.92603678 -0.65597689 1.4650283
-1.0582962 -0.34160435 0.04189438
-1.1127807 -0.10270755 0.046094082
-1.0725119 -0.039677516 -0.0063579041
-1.1341645 -0.075919792 0.17076084
-1.0802782 0.24561767 0.027753122
-1.089527 -0.30042773 0.34232107
-1.1384071 -0.0055898945 0.46667245
-0.94822395 -0.57992774 0.034446869
-0.85317153 -0.55804139 -0.023130652
-0.97067559 -0.33877569 -0.026235323
-1.0308183 -0.46550402 0.19389643
-0.52509922 -0.29467428 -0.031285249
-0.40121949 -0.53275347 -0.030344911
-0.7031157 -0.24591461 -0.040150605
-0.97719342 0.33212465 -0.024605263
-0.75302941 0.12447803 -0.038734972
-1.1134214 -0.12289639 1.2444141
-1.1366013 -0.015775373 1.6834224
-1.0664694 -0.34896219 2.6923103
-1.0973693 -0.24613288 1.7646036
-1.0358607 -0.45470673 1.9172323
-0.56160355 -0.96560508 0.038131449
-0.38818958 -0.90887821 -0.03125006
-0.44604775 -1.0390847 0.12753543
-0.14704783 -1.1071169 0.04008029
-0.33784196 -0.68573248 -0.040114112
-0.33516982 -1.079384 0.23168674
-0.045155615 -1.0359782 -0.022449616
0.22076757 -1.0806859 0.022670465
0.12200589 -1.1270792 0.23948139
-0.1007309 -1.1277924 0.27430767
0.37854776 -0.9562639 -0.026415259
-0.5567432 -0.98801768 1.8111269
-0.40574995 -1.0505962 2.1723657
-0.66392511 -0.91312373 2.6769283
-0.24501573 -1.0915648 2.3749475
-0.32911888 -1.0787984 2.5147552
-0.10643829 -1.1256089 2.0245421
0.13364072 -1.1262374 1.7701143
-0.0096405419 0.0037357139 -0.040568046
0.31755164 -0.66932994 -0.038876951
-0.77084506 -0.83045709 2.3260062
-0.91259164 -0.66787958 2.5185902
-0.76164436 -0.83341199 2.859396
-1.1325272 0.048119787 1.9470192
-1.1295583 -0.026097326 2.1130824
-1.0886366 -0.26776448 2.7572153
-1.0263456 -0.45679125 2.8835025
-0.55627316 -0.9753086 3.2000415
-0.39950767 -1.04538 2.9749095
-0.066648901 -1.1169009 3.1958785
0.12047902 -1.1146548 3.180614
-0.75400001 -0.82117915 3.6246986
-0.90099877 -0.65004075 3.6240675
-0.75913179 -0.79532111 4.0312428
-0.88424128 -0.64175552 4.1563129
-1.1235598 0.018709734 3.2480412
-1.08046 -0.26129436 3.4723504
-0.97979635 -0.50469416 3.7630441
-1.03544 -0.38775072 3.5761416
-1.0834374 -0.19252321 3.8516426
-1.0877463 -0.10185424 4.0171309
-1.0954471 0.017826119 4.1337657
-1.0295131 -0.34630072 4.1363702
-0.98954976 -0.44891396 4.1945391
-0.57305855 -0.9467476 3.8729432
-0.24711396 -1.085642 3.1482394
-0.37809542 -1.0337851 3.7587647
-0.57544476 -0.93776482 4.0710154
-0.35188866 -1.0354512 4.089294
-0.16920902 -1.0917435 3.691484
0.11989345 -1.0936853 3.9654429
-0.10670208 -1.089885 4.0463638
-0.19779247 -1.042902 4.5319047
-0.87790781 -0.61404872 4.4575782
-0.72784734 -0.78387016 4.5278659
-0.80268329 -0.68428791 4.7282295
-0.67929459 -0.79333323 4.8454103
-0.97779888 -0.40357727 4.5936093
-0.8755976 -0.55468482 4.8661103
-1.0372511 -0.23661143 4.5172343
-1.0726925 -0.016253915 4.4435797
-0.99751127 -0.28310305 4.8408704
-1.0486838 -0.09321025 4.735229
-1.0481464 0.12034879 4.73417
-0.95679462 -0.34085143 4.9904976
-0.89813662 -0.45066631 5.0398836
-0.76997066 -0.65934318 5.0224524
-0.69513261 -0.67447227 5.189261
-0.83013564 -0.47356221 5.2135506
-0.64550537 -0.55120325 5.3791571
-0.92753023 -0.24436493 5.1957221
-0.71221679 -0.45178935 5.3840361
-0.79643261 -0.28074402 5.3818007
-0.99779999 -0.13165449 5.0451727
-1.0116161 0.10122704 5.0096993
-0.96372908 -0.042309903 5.1953106
-0.85541964 -0.018671798 5.3746099
-0.55995017 -0.92753065 4.2979054
-0.39192224 -0.99524856 4.4097285
-0.50561577 -0.92435896 4.7325616
-0.31048962 -0.99498749 4.8083701
0.0042639249 -1.0523025 4.7200937
-0.063440487 -1.010349 5.001173
-0.45392221 -0.91606826 4.9715848
-0.613612 -0.78650892 5.0924816
-0.2892825 -0.96299207 5.029603
-0.29118928 -0.92335153 5.1752677
-0.48662829 -0.83179426 5.2018704
-0.46944445 -0.70735937 5.3818588
-0.25579417 -0.81567448 5.369915
0.18433048 -0.96649379 5.1573973
-0.008397609 -0.8528735 5.3733039
-0.047709312 -0.50122678 5.5954142
-0.032916337 -0.96191901 5.195858
-0.46993226 -0.09192995 5.6121931
-0.37478504 -0.28577209 5.6197891
-0.69434255 0.20600301 5.4536409
-0.51311064 0.090400197 5.5764074
-0.33094251 -0.055123553 5.7627416
-0.20171472 -0.42017642 5.6218772
0.029619131 -0.36561972 5.722023
-0.14027174 -0.299716 5.7686338
-0.23375076 -0.23211527 5.7616448
-0.29675162 -0.132264 5.7814374
0.072944313 -0.32091838 5.7997146
-0.23888192 -0.19161667 6.130918
-0.17965099 -0.24586719 6.1292739
-0.32119328 0.07266169 5.7977672
-0.30243847 -0.043993697 6.1092377
-0.081505187 -0.2956675 6.033875
0.03417585 -0.30340353 6.1481218
-0.30507755 -0.0098128989 7.3556619
-0.2765727 -0.1053232 6.9637198
-0.040078223 -0.30118844 6.3202324
-0.24341214 -0.17825985 7.3514085
-0.16521984 -0.251614 7.3538027
-0.02229831 -0.29961148 7.3320112
0.040684994 -0.29947841 7.1552272
-0.24920037 -0.22574683 7.4481592
-0.28050721 -0.14959209 7.5194621
-0.18456203 -0.24473318 7.5302653
-0.10964058 -0.32167152 7.4613142
-0.33387384 -0.019089449 7.4545622
-0.011983085 -0.30134818 7.5431371
-0.16424634 -0.17187701 7.6032438
-0.29338497 0.11826061 7.5225492
-0.22284037 -0.062217481 7.5927992
-0.2218067 0.040001806 7.5980597
-0.23426734 -0.048817139 7.9863443
-0.063402161 -0.22484194 7.5900135
0.050085433 -0.22352184 7.6000814
-0.055904727 -0.23325416 7.9870467
-0.18504237 -0.066653088 8.0509844
-0.17965695 0.088158824 8.0531673
-0.070585027 -0.17951958 8.0526438
0.051407505 -0.22717498 8.0318642
-0.16273907 -0.16235302 8.0396519
0.20097592 -0.051207535 8.0516586
0.14669608 0.13686469 8.0516167
-1.108824 0.25061479 0.24229687
-0.52090949 0.43187207 -0.027412483
-1.0314864 0.47104603 0.22478399
-0.9783709 0.51627707 0.032689087
-0.82119542 0.6198926 -0.023720969
-0.85385239 0.70946163 0.034773447
-0.91146648 0.6752795 0.22950497
-1.1052483 0.24771728 2.5706627
-1.0354334 0.45995733 1.9398234
-0.93138248 0.6441133 1.5701942
-0.85294139 0.73920816 1.5536714
-0.68641746 0.86930007 0.02051512
-0.75610644 0.84344906 0.2019687
-0.77661526 0.82420796 0.73289847
-0.67042708 0.90678024 0.55324346
-0.77433109 0.82752192 1.4368392
-0.31509179 0.24117877 -0.033261161
-0.43812069 0.93708563 -0.024386792
-0.31143883 0.65341067 -0.04014105
0.3605465 0.70818919 -0.038743123
-0.47746202 1.0158517 0.047285054
-0.58607006 0.97020501 0.31766102
-0.37414446 1.0700727 0.24264707
-0.32779273 1.0761977 0.42715436
-0.065421425 1.0385309 -0.023818454
-0.12837255 1.1035613 0.032519192
-0.015075024 1.1358138 0.21139012
-0.097153962 1.1285697 0.42046887
-0.51979899 1.005179 0.70169705
-0.66102254 0.91367227 1.470421
-0.40381122 1.0456923 0.90550178
-0.53563643 0.99557114 1.5007751
-0.41467407 1.0420307 1.5108961
-0.32711771 1.075699 2.0859933
0.13132668 1.1264126 1.0996023
-0.098983914 1.1270434 1.7276566
-0.92059475 0.65116739 2.6564605
-1.0298368 0.45338127 2.9275713
-0.78318244 0.81268561 2.4217558
-0.66201013 0.90721542 2.6678996
-0.76501244 0.82589257 2.9028821
-0.34262699 1.0657411 2.5469499
-0.26945195 1.0887058 1.7591698
-0.57254159 0.96064293 3.145452
-0.38489872 1.0452209 3.0505071
-0.08488287 1.1225035 2.6627922
0.13184074 1.1217568 2.4479983
-1.0861329 0.25026229 3.5896072
-0.89921999 0.6475141 3.7673497
-1.0087609 0.44817108 3.9173617
-1.0650499 0.24945849 4.1370597
-0.75301647 0.79479051 4.0895963
-0.76441407 0.80141842 3.7205296
-0.59567487 0.92350262 3.9399364
-0.12456078 1.105616 3.4388258
-0.37288788 1.0359101 3.6902006
0.12628195 1.1040814 3.5812037
-0.4772642 0.9852044 3.877764
-0.33371812 1.0344471 4.1599641
-0.099769481 1.0845476 4.1034474
-0.11169568 1.0963087 3.8698292
0.12471397 1.0904937 4.0064578
-0.94439048 0.46661189 4.733623
-0.99280864 0.30003038 4.8983274
-0.86580002 0.63758427 4.3909502
-0.75222027 0.71378767 4.8883038
-0.93714559 0.24608794 5.1965594
-0.78271979 0.33126163 5.3742762
-0.85166174 0.53658062 5.0551224
-0.81857544 0.51306194 5.189858
-0.69202018 0.67103863 5.1963334
-0.63062978 0.58147371 5.3700657
-0.70173442 0.8011471 4.5335741
-0.51962328 0.36585766 5.5111895
-0.41876301 0.51703697 5.4960027
-0.51909471 0.81590825 5.1954308
-0.40561673 0.75355798 5.3729172
-0.31168956 0.62447119 5.4764915
-0.53376454 0.93763846 4.2989831
-0.56642985 0.89861965 4.5717201
-0.37561762 0.99121076 4.5063839
-0.54965913 0.87151378 4.9159546
-0.41388014 0.95264685 4.8216166
-0.28913963 0.99709564 4.8341475
-0.20901017 1.0425543 4.4597197
-0.055973127 1.0520108 4.6716237
0.08944384 1.0437161 4.7728977
-0.32137692 0.95105457 5.0437517
-0.33780897 0.90167683 5.1960659
-0.038387313 1.0028719 5.0617027
-0.16925232 0.94569713 5.1931901
0.055849601 0.96370971 5.1920199
-0.21506861 0.83056229 5.3689251
-0.083056219 0.82864916 5.3910995
0.24013183 0.81805873 5.3799534
-0.40227947 0.24571636 5.6154323
-0.34312776 0.12150139 5.7258587
-0.23623534 0.22973257 5.7703586
-0.21552463 0.42987347 5.6128902
-0.11716862 0.30389616 5.7754812
-0.002713471 0.32687747 5.7673564
-0.29779649 0.061660867 6.1311255
-0.24718256 0.17886767 6.2741833
-0.18906671 0.23216182 6.2059274
-0.032440651 0.3035225 6.1233401
0.033858176 0.45090473 5.6303959
-0.26808089 0.14442581 7.3404417
-0.03730303 0.29897442 6.3975806
-0.25740364 0.1630251 6.8142481
-0.17288187 0.23923139 7.3390636
-0.13932443 0.26637265 6.8831301
-0.026067499 0.29776204 7.0431366
-0.014945652 0.29771125 7.336597
0.086665511 0.28710711 7.359592
-0.27337438 0.19846459 7.4537873
-0.16269714 0.2892389 7.4372816
-0.14542969 0.28456113 7.5236497
0.0085818144 0.33392549 7.4500833
-0.012766212 0.31116059 7.526762
-0.16775851 0.16462192 7.5940042
-0.23336495 0.045830194 7.9856858
-0.012140156 0.22800428 7.605165
-0.037463836 0.2351477 8.0332727
-0.1745628 0.16974151 8.0186939
0.039270293 0.23325515 8.0169916
0.34617841 -1.081687 0.21647245
0.49108294 -1.0247202 0.21616073
0.47708625 -1.0063974 0.033727359
0.60962278 -0.83442825 -0.023785239
0.71972203 -0.88007605 0.20168592
0.73400265 -0.83720684 0.03723865
0.80596936 -0.67305106 -0.012666038
0.59576356 -0.96544069 0.41970906
0.34690711 -1.0771616 2.6091573
0.55567443 -0.99231815 1.8770388
0.71057189 -0.87936801 2.4353304
0.39675486 -0.3404772 -0.030846698
0.64913404 -0.24389824 -0.040336464
0.90729696 -0.48070967 -0.02489181
0.94732594 -0.58931029 0.040122844
0.8836531 -0.70804065 0.204539
0.91338664 -0.66291928 0.44194999
0.8439551 -0.74432123 0.58056343
0.86707956 -0.72073382 1.7019866
0.77242845 -0.82619798 1.9809363
0.97746366 -0.55993277 0.17930958
1.0103673 -0.30849254 -0.0092775188
1.082167 -0.33082587 0.1987495
1.0839266 -0.26824743 0.045308128
1.0160447 -0.48941684 0.44949418
1.0525668 0.0091914972 -0.022694116
0.71673644 0.28235948 -0.038543422
1.1209816 -0.018302951 0.069127068
1.1387984 -0.025174981 0.30506372
1.1160505 -0.11289129 0.50396347
1.1017393 -0.24922758 0.53753316
1.1265827 0.12349228 0.21419588
1.0286343 -0.45359209 0.96741575
0.93706667 -0.61887622 1.4248295
1.0234139 -0.46964592 1.459458
1.1107669 -0.19377135 0.96878201
1.1351582 -0.0023942683 1.0619462
1.0918076 -0.26622948 1.3301373
0.54726321 -0.98368406 3.1874573
0.90381747 -0.67602515 2.169558
0.878465 -0.70585406 2.4753814
0.75708473 -0.83396065 2.7648833
1.0284772 -0.44781986 2.3457296
1.0784292 -0.30471936 2.1674423
1.1145793 -0.14100662 1.5434417
1.1297051 -0.030209137 1.7546588
1.1187589 -0.10425609 2.4010465
1.072587 -0.3037771 2.5731642
0.96738446 -0.55927312 2.7405789
1.0333714 -0.42419422 2.7729349
1.1355642 0.0003348836 2.1093051
1.0831609 -0.2729246 2.9106081
0.3312484 -1.0656344 3.5398939
0.73311985 -0.84011114 3.5393867
0.31649739 -1.0441923 4.1885424
0.53609926 -0.96129942 4.0648298
0.72109985 -0.83111894 4.0418615
0.67724741 -0.82911742 4.4725504
0.88500905 -0.67002344 3.5160494
0.88842928 -0.64642537 3.8033812
0.86357462 -0.66442478 4.1175256
0.99614233 -0.49671623 3.166821
1.033384 -0.38298064 3.5449722
1.0796765 -0.23937984 3.5906978
1.1265162 0.018119119 3.0392525
1.1176289 -0.027681155 3.2466183
0.98678297 -0.47282925 3.9789155
1.0640143 -0.23703787 4.0663228
1.0972726 0.0041778432 4.1018009
0.25085035 -1.0209173 4.7685456
0.48599362 -0.95192653 4.5492029
0.75780451 -0.72353351 4.7738676
0.57623136 -0.86573339 4.8878589
0.35747343 -0.94918406 5.0273199
0.18643674 -0.65622211 5.4792747
0.34538656 -0.78594685 5.3683076
0.4923763 -0.84013671 5.1885481
0.72179377 -0.66006726 5.1664848
0.5855667 -0.62340003 5.3736634
0.43246341 -0.53308982 5.4822783
0.75360197 -0.40578014 5.3709855
0.55442715 -0.4002279 5.4810104
0.57921058 -0.25575304 5.5134954
0.98188353 -0.4305748 4.3356547
1.0451965 -0.23265827 4.3899164
0.90974712 -0.53499317 4.5795498
0.87689865 -0.53649652 4.9067554
0.98764044 -0.33455527 4.7862639
1.080896 0.017361188 4.3148732
1.0448226 -0.11142719 4.7378287
0.87985063 -0.39438355 5.1947336
0.94813478 -0.31700453 5.060431
0.99177122 -0.17417221 5.0255308
1.0157683 -0.018267596 4.9988217
1.0472423 0.11883604 4.7308536
0.97101331 0.036225561 5.1850839
0.82996041 -0.18381761 5.3777761
0.85786647 -0.019064628 5.3686862
0.48109278 -0.019553015 5.6111922
0.94523609 -0.14356527 5.2095022
0.19917895 -0.43043441 5.6115875
0.33961532 -0.31554458 5.6226945
0.2061391 -0.25615507 5.7718029
0.31418547 -0.1138828 5.7666621
0.4345707 -0.1613373 5.6238604
0.31636125 0.095149569 5.7748508
0.14585224 -0.26779795 6.1448846
0.22441977 -0.20099021 6.1429267
0.30019417 -0.09874507 5.878068
0.30337065 0.042081695 6.1364498
0.22171687 -0.20719132 6.5063457
0.28792796 -0.066473454 6.5206861
0.30179855 0.00083019456 7.3606076
0.14181693 -0.26766586 7.3621697
0.23310174 -0.18770112 6.9047856
0.23737782 -0.17203929 7.3451838
0.13258082 -0.3109912 7.4703636
0.26599646 -0.20387898 7.4322152
0.21590276 -0.23004195 7.5253582
0.31137383 -0.084664732 7.5192375
0.31411639 0.13270654 7.4890051
0.15968028 -0.17584114 7.5897908
0.22454637 -0.053971045 7.5945678
0.1619391 -0.18547495 8.0250521
0.2355006 -0.039578341 7.9860644
0.22433449 0.045668948 7.5979204
0.909567 0.48890063 -0.025363091
0.63579065 0.81709087 -0.024032965
0.77380568 0.71718264 -0.016104383
0.41046083 0.94850457 -0.024272081
0.23787636 1.0754668 0.02253997
0.3929542 1.0382637 0.043650165
0.28769913 1.0950724 0.21238886
0.41989923 1.0551524 0.22768775
0.53021741 0.9704771 0.023846744
0.63846666 0.94177485 0.20765273
0.70636421 0.86541009 0.0455666
0.80654603 0.79664373 0.19651794
0.58367115 0.97771925 0.58561558
0.36640149 1.075145 1.5861402
0.77724785 0.82972521 0.62815136
0.58404899 0.97683549 1.4822694
1.0544367 0.20505062 -0.0028041299
1.064705 0.32408196 0.047687773
1.1024603 0.26894841 0.22415176
1.0353348 0.46524507 0.42132682
0.87236643 0.69513226 0.043807156
0.92148447 0.66077745 0.22849506
0.9796195 0.52707189 0.047909327
1.0331577 0.46835622 1.4105141
0.91434342 0.67161709 1.4788567
1.1137072 0.22156519 1.5513557
0.77134907 0.83368951 1.5801266
0.58134007 0.97385067 2.4443302
0.37430212 1.0667057 2.6014674
0.23319139 1.0919147 3.1682901
0.76572442 0.83367944 2.4185693
0.76068008 0.8301751 3.0470786
1.0323019 0.46248159 2.1509938
0.91336977 0.67029607 2.0985529
1.1076109 0.22972959 2.5844491
0.90891415 0.6682784 2.719908
1.0305847 0.45793205 2.7581201
0.35404685 1.0510362 3.7754583
0.57622468 0.96333295 3.3384707
0.33891088 1.0432425 4.0837021
0.56143415 0.94636828 4.0569038
0.7483595 0.80831951 4.0020185
1.087554 0.24305943 3.5571413
1.0112365 0.47739509 3.262069
0.89652908 0.65714657 3.6140954
1.076123 0.25329253 3.8752129
1.0014828 0.45000845 4.0195017
0.88652283 0.64967662 4.0164847
0.68702495 0.50413662 5.3809042
0.50714689 0.68505645 5.3793874
0.27493209 0.36588681 5.6339903
0.6951924 0.73262435 5.0386391
0.79178035 0.56166422 5.1901436
0.54942918 0.79959506 5.1950893
0.24443007 1.0357047 4.564374
0.46031314 0.94431299 4.7817287
0.61719948 0.85544127 4.7443819
0.76558942 0.71526206 4.7965717
0.24995713 0.99441153 4.9384046
0.28445691 0.93531418 5.167532
0.49327904 0.88732904 5.0260606
1.0245417 0.31276855 4.3998308
0.95197135 0.44071335 4.7674794
1.0117806 0.21307665 4.9118099
0.8690002 0.60554433 4.6283603
0.9189024 0.34104484 5.1641498
0.82451344 0.20853123 5.3779511
0.8373785 0.56387436 5.0223684
0.12416541 0.30517307 5.7737761
0.23896854 0.22328068 5.7800884
0.43216518 0.18974164 5.6173372
0.060286965 0.2958551 6.1647019
0.13775307 0.2745038 6.126513
0.26607817 0.15029812 6.1245389
0.20881841 0.22359054 6.226006
0.25990129 0.15598609 7.3640823
0.16487446 0.25477821 7.3631339
0.21528342 0.25657013 7.5140505
0.19865654 0.20151304 7.5555124
0.15900533 0.1753765 7.6162663
0.17154324 0.17839862 8.0047293
0.23338996 0.049327862 7.9872365
